ply
format ascii 1.0
element vertex 743
property float x
property float y
property float z
end_header
0.738608121871948242 -5.47855472564697266 -0.726134896278381348
-0.295581281185150146 -4.6307063102722168 -0.721624791622161865
0.569160640239715576 -4.1959681510925293 -0.76331174373626709
-0.230876848101615906 -3.63147497177124023 -0.743263065814971924
0.461247652769088745 -3.35856127738952637 -0.779837131500244141
-0.188100904226303101 -2.96254611015319824 -0.75457608699798584
-0.156313613057136536 -2.45879483222961426 -0.751604795455932617
0.333880454301834106 -2.37335920333862305 -0.799145519733428955
-0.135106086730957031 -2.12233352661132812 -0.761152327060699463
0.280968636274337769 -1.96575832366943359 -0.768621325492858887
-0.116157673299312592 -1.82274103164672852 -0.753064155578613281
0.24824465811252594 -1.70535004138946533 -0.764073193073272705
-0.101241089403629303 -1.57872891426086426 -0.742173075675964355
0.220776766538619995 -1.48494231700897217 -0.753823578357696533
-0.090749792754650116 -1.40249085426330566 -0.743969976902008057
-0.0822298750281333923 -1.25966238975524902 -0.749204814434051514
0.185184314846992493 -1.18373537063598633 -0.757157325744628906
-0.0725623741745948792 -1.10271584987640381 -0.730385124683380127
0.170286908745765686 -1.05872821807861328 -0.754221498966217041
-0.0658938214182853699 -0.983358919620513916 -0.723067581653594971
0.143629446625709534 -0.830608665943145752 -0.72880023717880249
0.134763076901435852 -0.746489048004150391 -0.727341830730438232
-0.6806601881980896 -10.0439262390136719 -0.105757094919681549
1.49321472644805908 -11.4424152374267578 -0.400032579898834229
-0.610076904296875 -9.09815883636474609 -0.542146384716033936
0.987243413925170898 -7.53513813018798828 -0.628962814807891846
-0.409203082323074341 -6.12502098083496094 -0.657923996448516846
0.709180176258087158 -5.38554525375366211 -0.712819516658782959
-0.309125065803527832 -4.61993217468261719 -0.720003604888916016
0.557325065135955811 -4.20548486709594727 -0.764805316925048828
-0.242866814136505127 -3.64342856407165527 -0.746005833148956299
0.450419694185256958 -3.35610866546630859 -0.778893828392028809
-0.195574387907981873 -2.9378666877746582 -0.748084545135498047
-0.141365304589271545 -2.11817812919616699 -0.759731888771057129
0.276757717132568359 -1.9794316291809082 -0.773942768573760986
-0.121317170560359955 -1.81598055362701416 -0.750251650810241699
-0.105841152369976044 -1.57484245300292969 -0.740382015705108643
0.215960800647735596 -1.48386907577514648 -0.752878785133361816
-0.0954104140400886536 -1.40741455554962158 -0.746926367282867432
0.193958684802055359 -1.30219197273254395 -0.742789924144744873
-0.0863865092396736145 -1.26361286640167236 -0.751888394355773926
0.180521979928016663 -1.17775559425354004 -0.752669870853424072
-0.0758880749344825745 -1.10167527198791504 -0.729805409908294678
0.157080471515655518 -0.959855854511260986 -0.760499417781829834
-0.0631647109985351562 -0.888129651546478271 -0.724697470664978027
0.140700668096542358 -0.82889026403427124 -0.726748108863830566
-0.712533354759216309 -10.0567512512207031 -0.105969145894050598
-0.640505790710449219 -9.13208389282226562 -0.544431924819946289
0.963740527629852295 -7.53516721725463867 -0.62870025634765625
-0.434802651405334473 -6.22087240219116211 -0.668983936309814453
0.691637754440307617 -5.3798370361328125 -0.711721360683441162
-0.320529937744140625 -4.57958841323852539 -0.713518738746643066
0.541371405124664307 -4.18379449844360352 -0.760324597358703613
-0.2514457106590271 -3.60561275482177734 -0.737988471984863281
0.441778808832168579 -3.36999869346618652 -0.78195953369140625
-0.202830687165260315 -2.91220617294311523 -0.741333365440368652
-0.171330839395523071 -2.45684027671813965 -0.751297116279602051
-0.14779740571975708 -2.11680197715759277 -0.759376764297485352
0.239555671811103821 -1.71937680244445801 -0.770047366619110107
0.210772722959518433 -1.48016357421875 -0.750516772270202637
-0.0893467813730239868 -1.25071859359741211 -0.743837714195251465
0.175898104906082153 -1.17175841331481934 -0.748182475566864014
-0.0798630192875862122 -1.10956370830535889 -0.735602498054504395
0.16416381299495697 -1.06211614608764648 -0.756031155586242676
-0.0719847157597541809 -0.983717620372772217 -0.723688721656799316
0.137534990906715393 -0.825724244117736816 -0.723327934741973877
-0.0607559382915496826 -0.802381396293640137 -0.725827276706695557
-0.743826806545257568 -10.0605010986328125 -0.106053963303565979
-0.665087401866912842 -9.08329582214355469 -0.541447997093200684
0.924885392189025879 -7.41255760192871094 -0.61758732795715332
-0.449969232082366943 -6.16599750518798828 -0.662889719009399414
0.681207358837127686 -5.43008756637573242 -0.718447685241699219
-0.337683230638504028 -4.62090110778808594 -0.720489919185638428
0.530145764350891113 -4.1981053352355957 -0.762751638889312744
-0.260508418083190918 -3.57752752304077148 -0.732080936431884766
0.43019220232963562 -3.36170053482055664 -0.779601335525512695
-0.212751179933547974 -2.92505383491516113 -0.744968593120574951
0.357635676860809326 -2.76270294189453125 -0.782470285892486572
-0.179911866784095764 -2.47053694725036621 -0.755912423133850098
0.306670427322387695 -2.33613276481628418 -0.784848392009735107
-0.154428109526634216 -2.11820316314697266 -0.760087013244628906
0.262988835573196411 -1.96917760372161865 -0.769001424312591553
0.23515009880065918 -1.72637414932250977 -0.773034453392028809
-0.114972561597824097 -1.56702983379364014 -0.736799955368041992
0.206230655312538147 -1.48080325126647949 -0.750516772270202637
-0.103979319334030151 -1.40593492984771729 -0.746433615684509277
-0.0925470143556594849 -1.24202489852905273 -0.738470613956451416
-0.083514869213104248 -1.11256325244903564 -0.737921357154846191
0.159428119659423828 -1.05315828323364258 -0.748792648315429688
0.151310786604881287 -0.961556375026702881 -0.761143803596496582
0.138178214430809021 -0.844839870929718018 -0.741112947463989258
-0.0639068707823753357 -0.810731291770935059 -0.734229207038879395
-0.774611592292785645 -10.0571746826171875 -0.106039829552173615
-0.692114591598510742 -9.0702667236328125 -0.540749669075012207
0.910961627960205078 -7.48754310607910156 -0.623975098133087158
-0.46775054931640625 -6.14972686767578125 -0.66119682788848877
0.664786875247955322 -5.43411827087402344 -0.718722224235534668
-0.354115068912506104 -4.64936017990112305 -0.725353538990020752
0.517384707927703857 -4.20068693161010742 -0.762938380241394043
-0.275943666696548462 -3.63519096374511719 -0.744739949703216553
0.421092569828033447 -3.37264609336853027 -0.78195953369140625
-0.187780648469924927 -2.47376823425292969 -0.757143199443817139
0.309229671955108643 -2.41188144683837891 -0.811447620391845703
-0.161425918340682983 -2.12424421310424805 -0.762572765350341797
0.256459623575210571 -1.96630752086639404 -0.767481029033660889
-0.139358282089233398 -1.83213496208190918 -0.757885575294494629
0.227663531899452209 -1.71095645427703857 -0.765353381633758545
-0.120055362582206726 -1.57023561000823975 -0.73859095573425293
0.202659189701080322 -1.48841273784637451 -0.754295945167541504
-0.108156777918338776 -1.40387415885925293 -0.745448172092437744
-0.0966882109642028809 -1.24594104290008545 -0.741154193878173828
-0.0863470360636711121 -1.10499143600463867 -0.732703983783721924
-0.0770720615983009338 -0.971540212631225586 -0.71437150239944458
0.148119017481803894 -0.960505783557891846 -0.759855031967163086
-0.0721337050199508667 -0.897227942943572998 -0.733296215534210205
-0.0662745684385299683 -0.809108436107635498 -0.732828915119171143
0.120692647993564606 -0.720150649547576904 -0.6977347731590271
-0.805782854557037354 -10.0587377548217773 -0.106096372008323669
-0.718830645084381104 -9.05417346954345703 -0.539860844612121582
0.888574957847595215 -7.49524879455566406 -0.624412596225738525
-0.487087100744247437 -6.1542057991027832 -0.661873996257781982
-0.366030186414718628 -4.61874198913574219 -0.720489919185638428
0.501307070255279541 -4.17592144012451172 -0.757897555828094482
-0.283692210912704468 -3.59145259857177734 -0.735456645488739014
0.412285745143890381 -3.38646101951599121 -0.785025179386138916
-0.229243308305740356 -2.90540266036987305 -0.740035057067871094
0.342576444149017334 -2.78006601333618164 -0.787022590637207031
-0.194991961121559143 -2.46843814849853516 -0.755604743957519531
0.293042778968811035 -2.34358429908752441 -0.786843359470367432
-0.168685108423233032 -2.13305759429931641 -0.766123831272125244
0.250069350004196167 -1.96433329582214355 -0.766340732574462891
0.224552839994430542 -1.72778451442718506 -0.773034453392028809
-0.124728865921497345 -1.5680774450302124 -0.737695455551147461
-0.112322576344013214 -1.40180110931396484 -0.744462728500366211
-0.100303813815116882 -1.24311566352844238 -0.739544034004211426
0.162020370364189148 -1.15202546119689941 -0.73359835147857666
-0.0910100415349006653 -1.12015056610107422 -0.743718445301055908
0.153317645192146301 -1.05648303031921387 -0.750602245330810547
0.135465219616889954 -0.860789179801940918 -0.755477726459503174
-0.067210860550403595 -0.791118741035461426 -0.715324819087982178
0.116721481084823608 -0.710291624069213867 -0.686902940273284912
-0.836721837520599365 -10.0572147369384766 -0.106110513210296631
1.28501880168914795 -11.1820449829101562 -0.389279037714004517
-0.746276378631591797 -9.04794692993164062 -0.539606869220733643
0.872921526432037354 -7.56126928329467773 -0.630012810230255127
-0.510619699954986572 -6.20912694931030273 -0.66830676794052124
0.630971312522888184 -5.43415975570678711 -0.718173086643218994
-0.382230043411254883 -4.64218282699584961 -0.724542975425720215
0.486882179975509644 -4.16378021240234375 -0.755283832550048828
-0.294709295034408569 -3.59056544303894043 -0.735456645488739014
0.401662945747375488 -3.38578009605407715 -0.78455352783203125
-0.238314583897590637 -2.90661048889160156 -0.740554332733154297
0.331961750984191895 -2.76397418975830078 -0.781901240348815918
-0.203190937638282776 -2.47541427612304688 -0.758066236972808838
-0.176385611295700073 -2.14650464057922363 -0.771450400352478027
0.244621813297271729 -1.96967935562133789 -0.768241226673126221
0.218902677297592163 -1.72577464580535889 -0.771754264831542969
-0.129613474011421204 -1.56857836246490479 -0.738143205642700195
-0.116987816989421844 -1.40578544139862061 -0.746926367282867432
0.178837746381759644 -1.3406296968460083 -0.764509439468383789
-0.103760212659835815 -1.23859834671020508 -0.736860513687133789
0.15790441632270813 -1.14841878414154053 -0.73079371452331543
-0.0945852026343345642 -1.1214897632598877 -0.744877815246582031
0.149496808648109436 -1.05300283432006836 -0.747586250305175781
-0.0831677541136741638 -0.972610533237457275 -0.715613782405853271
-0.0781651139259338379 -0.902745187282562256 -0.738587737083435059
0.131436824798583984 -0.852557957172393799 -0.747269272804260254
-0.869897544384002686 -10.0814971923828125 -0.106492199003696442
1.24847877025604248 -11.1660728454589844 -0.388521760702133179
-0.772582590579986572 -9.02871131896972656 -0.538527607917785645
0.844691336154937744 -7.51936769485473633 -0.626075148582458496
-0.521028518676757812 -6.10655117034912109 -0.6567954421043396
0.615304291248321533 -5.44492721557617188 -0.719408571720123291
-0.394700467586517334 -4.62034177780151367 -0.721138417720794678
0.480045586824417114 -4.21698284149169922 -0.765178680419921875
-0.307056605815887451 -3.60522723197937012 -0.738832414150238037
0.392062634229660034 -3.3937530517578125 -0.786204278469085693
-0.247066199779510498 -2.90394139289855957 -0.740035057067871094
-0.210540652275085449 -2.47193527221679688 -0.757143199443817139
0.276171624660491943 -2.32473921775817871 -0.779528558254241943
-0.182090133428573608 -2.13570785522460938 -0.767544269561767578
-0.156136378645896912 -1.82986235618591309 -0.757483780384063721
0.212813541293144226 -1.72015726566314697 -0.768767178058624268
-0.134733781218528748 -1.57173669338226318 -0.739934265613555908
-0.120164938271045685 -1.39241671562194824 -0.73953545093536377
0.147172361612319946 -1.05977237224578857 -0.752411901950836182
-0.0860809534788131714 -0.971570253372192383 -0.714992642402648926
0.135524824261665344 -0.936873197555541992 -0.738590121269226074
0.131314605474472046 -0.868809998035430908 -0.762318134307861328
-0.901001334190368652 -10.0807723999023438 -0.106520473957061768
1.21573281288146973 -11.1837587356567383 -0.389051854610443115
-0.797365248203277588 -8.99349403381347656 -0.536432504653930664
0.816509127616882324 -7.47538328170776367 -0.621962487697601318
-0.543006479740142822 -6.14154434204101562 -0.660971105098724365
0.590861141681671143 -5.37688827514648438 -0.709662258625030518
0.464596956968307495 -4.19597959518432617 -0.760884702205657959
-0.318719953298568726 -3.611083984375 -0.740309298038482666
0.383624494075775146 -3.41232037544250488 -0.790449082851409912
0.316755026578903198 -2.78119659423828125 -0.786453545093536377
-0.218796819448471069 -2.47885966300964355 -0.759604692459106445
0.265844851732254028 -2.29841256141662598 -0.769886374473571777
-0.189387276768684387 -2.14351963996887207 -0.770740211009979248
0.230433955788612366 -1.95369493961334229 -0.761019289493560791
-0.160204380750656128 -1.81204450130462646 -0.749849855899810791
0.20642910897731781 -1.71182620525360107 -0.764499902725219727
0.186595737934112549 -1.50827527046203613 -0.763743937015533447
-0.125141307711601257 -1.39984130859375 -0.743969976902008057
0.171162933111190796 -1.34594523906707764 -0.767095088958740234
-0.112276740372180939 -1.24802184104919434 -0.743301033973693848
0.153188705444335938 -1.16659379005432129 -0.742573201656341553
-0.0998259931802749634 -1.10303723812103271 -0.732124269008636475
-0.0889885500073432922 -0.970521271228790283 -0.71437150239944458
-0.0852541700005531311 -0.918675422668457031 -0.753139495849609375
-0.932477712631225586 -10.0839347839355469 -0.106605298817157745
-0.824770510196685791 -8.98901748657226562 -0.536305546760559082
0.791563451290130615 -7.45903301239013672 -0.620299935340881348
-0.566656231880187988 -6.1922907829284668 -0.66695249080657959
0.591205060482025146 -5.53526735305786133 -0.731488466262817383
-0.424668461084365845 -4.63552045822143555 -0.724056601524353027
0.447266131639480591 -4.15636491775512695 -0.753043472766876221
-0.326404154300689697 -3.57309985160827637 -0.732291877269744873
-0.26426231861114502 -2.89563894271850586 -0.738217413425445557
-0.225878357887268066 -2.47249197959899902 -0.757758557796478271
0.259328365325927734 -2.30390238761901855 -0.771548807621002197
0.2246541827917099 -1.9562300443649292 -0.761779487133026123
-0.166435897350311279 -1.818839430809021 -0.753064155578613281
0.201499894261360168 -1.71514523029327393 -0.765780091285705566
-0.144705668091773987 -1.57444167137145996 -0.741725325584411621
0.165841564536094666 -1.33712470531463623 -0.761406660079956055
-0.116342462599277496 -1.25019156932830811 -0.744911134243011475
0.149283081293106079 -1.16459619998931885 -0.740890383720397949
-0.104133330285549164 -1.11245989799499512 -0.739080727100372314
0.141426503658294678 -1.06618666648864746 -0.756634354591369629
-0.0933930501341819763 -0.985065281391143799 -0.726173281669616699
0.124564982950687408 -0.860222935676574707 -0.75342559814453125
-0.0752207860350608826 -0.77318263053894043 -0.698520958423614502
-0.962838828563690186 -10.0750541687011719 -0.106520473957061768
1.14565610885620117 -11.1770906448364258 -0.388521760702133179
-0.85206139087677002 -8.98346424102783203 -0.536115109920501709
0.770215153694152832 -7.47628927230834961 -0.621612489223480225
-0.584244310855865479 -6.17568540573120117 -0.665259659290313721
0.564444124698638916 -5.44346380233764648 -0.718447685241699219
-0.435901731252670288 -4.60276079177856445 -0.718868732452392578
0.448635488748550415 -4.29156589508056641 -0.778620779514312744
-0.336811095476150513 -3.56624293327331543 -0.731025993824005127
-0.274785667657852173 -2.91211962699890137 -0.742891311645507812
-0.233012869954109192 -2.46705102920532227 -0.756220102310180664
-0.203776091337203979 -2.15534591674804688 -0.775711715221405029
0.218965768814086914 -1.95966708660125732 -0.762919783592224121
-0.170972168445587158 -1.8073810338973999 -0.748242676258087158
0.196657329797744751 -1.71934843063354492 -0.767486989498138428
0.177126660943031311 -1.50764179229736328 -0.76279914379119873
-0.133895531296730042 -1.4007793664932251 -0.74495542049407959
0.161315768957138062 -1.33422982692718506 -0.759338140487670898
-0.12017744779586792 -1.24982881546020508 -0.744911134243011475
0.146027743816375732 -1.16751182079315186 -0.742573201656341553
-0.107704751193523407 -1.11375713348388672 -0.740240156650543213
-0.0956395566463470459 -0.976975619792938232 -0.719961822032928467
-0.0890871062874794006 -0.900225579738616943 -0.737264871597290039
-0.993645846843719482 -10.0710582733154297 -0.106506340205669403
1.1081852912902832 -11.1487340927124023 -0.38731008768081665
-0.880202829837799072 -8.98676776885986328 -0.53649604320526123
0.751556813716888428 -7.52123737335205078 -0.625375151634216309
-0.597184836864471436 -6.11255311965942383 -0.658262550830841064
0.551736533641815186 -5.4845890998840332 -0.723938524723052979
-0.454933851957321167 -4.65148639678955078 -0.727136909961700439
0.430162280797958374 -4.24112510681152344 -0.768725931644439697
-0.350989401340484619 -3.59826922416687012 -0.738199412822723389
0.35200035572052002 -3.41377353668212891 -0.789977431297302246
-0.28315398097038269 -2.90549635887145996 -0.741333365440368652
-0.240023240447044373 -2.46064305305480957 -0.75437396764755249
0.243969172239303589 -2.29419851303100586 -0.767558932304382324
-0.21111905574798584 -2.16215324401855469 -0.778552532196044922
0.21213705837726593 -1.95297515392303467 -0.759878993034362793
0.188925370573997498 -1.69837796688079834 -0.757245540618896484
-0.138537690043449402 -1.40382564067840576 -0.746926367282867432
-0.125106930732727051 -1.26036834716796875 -0.751888394355773926
0.142755910754203796 -1.170418381690979 -0.744255959987640381
-0.110957294702529907 -1.11180007457733154 -0.739080727100372314
-1.02464008331298828 -10.0689573287963867 -0.106520473957061768
-0.903248310089111328 -8.93934345245361328 -0.533639073371887207
0.721720218658447266 -7.45410490036010742 -0.619249880313873291
-0.616933703422546387 -6.12057828903198242 -0.659391164779663086
0.522218704223632812 -5.35711812973022461 -0.705955922603607178
-0.468308120965957642 -4.64123296737670898 -0.725677788257598877
0.413750499486923218 -4.20820856094360352 -0.762191593647003174
-0.360062211751937866 -3.57772469520568848 -0.733979761600494385
0.341525405645370483 -3.41483736038208008 -0.789977431297302246
-0.291290104389190674 -2.8969273567199707 -0.739256024360656738
0.277886092662811279 -2.73910021781921387 -0.772796690464019775
-0.247188076376914978 -2.45610833168029785 -0.753143250942230225
-0.217940017580986023 -2.16335558891296387 -0.779262781143188477
0.206243529915809631 -1.95453643798828125 -0.760259091854095459
-0.180671140551567078 -1.79263222217559814 -0.742215871810913086
-0.141776278614997864 -1.39300644397735596 -0.741013646125793457
-0.128799393773078918 -1.25829994678497314 -0.750814974308013916
0.140781402587890625 -1.18399763107299805 -0.753230810165405273
-0.114367730915546417 -1.11145436763763428 -0.739080727100372314
0.130595296621322632 -1.0595318078994751 -0.750602245330810547
0.122055552899837494 -0.94566267728805542 -0.744389653205871582
-0.0943700820207595825 -0.897424757480621338 -0.73528057336807251
0.118790671229362488 -0.876499950885772705 -0.767790436744689941
-1.0571969747543335 -10.0816774368286133 -0.106746658682823181
-0.933154106140136719 -8.96035289764404297 -0.535162806510925293
0.692396223545074463 -7.38785171508789062 -0.613212168216705322
-0.636531651020050049 -6.12656259536743164 -0.660293996334075928
0.511786341667175293 -5.42180395126342773 -0.714741349220275879
-0.482135593891143799 -4.6358485221862793 -0.725029289722442627
-0.372251540422439575 -3.58826994895935059 -0.736511588096618652
-0.303076565265655518 -2.92387485504150391 -0.746786236763000488
0.268718838691711426 -2.73230838775634766 -0.770520567893981934
-0.255610436201095581 -2.46385574340820312 -0.755912423133850098
0.230749219655990601 -2.30409646034240723 -0.770551323890686035
0.199860945343971252 -1.95148026943206787 -0.758738696575164795
0.178016647696495056 -1.69500923156738281 -0.755111932754516602
-0.165699094533920288 -1.58855390548706055 -0.749784946441650391
0.164704501628875732 -1.52234792709350586 -0.769885063171386719
-0.146415784955024719 -1.3960263729095459 -0.742984533309936523
0.147952452301979065 -1.32630479335784912 -0.753649652004241943
-0.133195757865905762 -1.26293301582336426 -0.754035234451293945
-0.117864012718200684 -1.1119084358215332 -0.739660441875457764
-0.0980244874954223633 -0.905331552028656006 -0.742556393146514893
-1.0902714729309082 -10.0982685089111328 -0.107029393315315247
0.994992375373840332 -11.0420207977294922 -0.382879912853240967
-0.960319995880126953 -8.95447158813476562 -0.534972310066223145
0.669275045394897461 -7.38498115539550781 -0.612774670124053955
-0.65076977014541626 -6.08209943771362305 -0.655441164970397949
-0.495091468095779419 -4.6225743293762207 -0.723083853721618652
0.387375056743621826 -4.20479869842529297 -0.761071383953094482
-0.383571088314056396 -3.59002685546875 -0.737144529819488525
0.316151678562164307 -3.37043190002441406 -0.778658032417297363
-0.313486784696578979 -2.93637394905090332 -0.750421524047851562
-0.262761831283569336 -2.45927572250366211 -0.754681646823883057
0.221915066242218018 -2.28696155548095703 -0.764234006404876709
-0.229810222983360291 -2.14896512031555176 -0.774291276931762695
0.194340303540229797 -1.95668530464172363 -0.760639190673828125
-0.191569015383720398 -1.79057943820953369 -0.741814076900482178
0.172251194715499878 -1.69015061855316162 -0.752551555633544922
-0.17057192325592041 -1.58803796768188477 -0.749784946441650391
0.144359007477760315 -1.33100533485412598 -0.756235301494598389
-0.137345775961875916 -1.26503467559814453 -0.755645394325256348
0.135242164134979248 -1.19964015483856201 -0.763327538967132568
-0.122884161770343781 -1.12611985206604004 -0.750095188617706299
0.122453309595584869 -1.04685354232788086 -0.740347743034362793
-0.111540108919143677 -1.01077628135681152 -0.747913479804992676
0.1151718869805336 -0.890223681926727295 -0.780103087425231934
-1.12378931045532227 -10.1177330017089844 -0.107354536652565002
-0.987458527088165283 -8.94850730895996094 -0.534781873226165771
0.646789908409118652 -7.38898420333862305 -0.612949669361114502
-0.676290690898895264 -6.14229393005371094 -0.66255110502243042
0.485707402229309082 -5.50574636459350586 -0.725997626781463623
-0.509596168994903564 -4.62397575378417969 -0.72357022762298584
0.374561190605163574 -4.20694589614868164 -0.761258125305175781
-0.398763716220855713 -3.62672519683837891 -0.745372891426086426
0.30607682466506958 -3.37428903579711914 -0.779365479946136475
-0.322917550802230835 -2.93923783302307129 -0.751460134983062744
-0.270932555198669434 -2.46413230895996094 -0.75652778148651123
0.214177936315536499 -2.2801210880279541 -0.761574089527130127
-0.235476553440093994 -2.13988757133483887 -0.771095335483551025
0.188336372375488281 -1.95727229118347168 -0.760639190673828125
-0.19736422598361969 -1.79271376132965088 -0.743019461631774902
0.166425943374633789 -1.68437278270721436 -0.749564468860626221
-0.176333993673324585 -1.59550511837005615 -0.753814816474914551
-0.154688090085983276 -1.39250731468200684 -0.741506338119506836
0.140552818775177002 -1.33399462699890137 -0.757786750793457031
-0.141415342688560486 -1.26628422737121582 -0.756718814373016357
-0.12624657154083252 -1.12492799758911133 -0.74951547384262085
-0.116251103579998016 -1.02444350719451904 -0.759094119071960449
0.114866308867931366 -0.958886384963989258 -0.754699885845184326
-1.15834522247314453 -10.1450338363647461 -0.107792779803276062
-1.0134429931640625 -8.93254470825195312 -0.533956527709960938
0.620827257633209229 -7.35222291946411133 -0.609537005424499512
-0.694235920906066895 -6.13229227066040039 -0.661648273468017578
-0.526230454444885254 -4.64396095275878906 -0.727136909961700439
0.359865874052047729 -4.18752193450927734 -0.757337510585784912
-0.407905429601669312 -3.6080021858215332 -0.741575181484222412
0.292884379625320435 -3.34326887130737305 -0.771583437919616699
-0.328559398651123047 -2.90848755836486816 -0.743410646915435791
0.245636686682701111 -2.75758004188537598 -0.777348995208740234
-0.279028177261352539 -2.46801662445068359 -0.758066236972808838
0.208052545785903931 -2.29015827178955078 -0.764899015426635742
-0.240666612982749939 -2.12708020210266113 -0.766478896141052246
0.182242825627326965 -1.95692014694213867 -0.760259091854095459
-0.20193009078502655 -1.78391122817993164 -0.739403367042541504
0.160991951823234558 -1.68217527866363525 -0.748284280300140381
-0.159059107303619385 -1.39289069175720215 -0.74199908971786499
0.137810111045837402 -1.34718692302703857 -0.765543699264526367
-0.144716694951057434 -1.26081550121307373 -0.753498494625091553
0.128333613276481628 -1.20456171035766602 -0.766132175922393799
-0.11581093817949295 -0.993728697299957275 -0.73486936092376709
-0.105642221868038177 -0.898433268070220947 -0.737264871597290039
0.110081113874912262 -0.893807351589202881 -0.78283923864364624
-0.0968686267733573914 -0.813208878040313721 -0.739830493927001953
-1.19704389572143555 -10.2059822082519531 -0.108711659908294678
-1.04130566120147705 -8.93335819244384766 -0.534210503101348877
0.597048163414001465 -7.33920049667358398 -0.608224451541900635
-0.709020674228668213 -6.09559059143066406 -0.657698273658752441
0.442026525735855103 -5.38917684555053711 -0.709387719631195068
-0.535098850727081299 -4.59625911712646484 -0.719517230987548828
-0.418293803930282593 -3.60090827941894531 -0.740309298038482666
0.281130999326705933 -3.32672333717346191 -0.76733863353729248
-0.33770453929901123 -2.90938425064086914 -0.74392998218536377
-0.286708921194076538 -2.4680941104888916 -0.758373916149139404
-0.245346173644065857 -2.11054730415344238 -0.760442078113555908
0.176578223705291748 -1.96115422248840332 -0.761779487133026123
-0.208466872572898865 -1.79237854480743408 -0.743421256542205811
0.155830353498458862 -1.68266129493713379 -0.748284280300140381
0.144623935222625732 -1.51022064685821533 -0.762326717376708984
-0.162207081913948059 -1.38289046287536621 -0.736579060554504395
-0.149980202317237854 -1.2720954418182373 -0.761012494564056396
0.112278640270233154 -1.04318070411682129 -0.736728489398956299
0.108528949320316315 -0.955776453018188477 -0.751477956771850586
-0.108762495219707489 -0.901082694530487061 -0.739910662174224854
-1.23301637172698975 -10.2409772872924805 -0.109262995421886444
-1.07120144367218018 -8.95093059539794922 -0.535543739795684814
0.572806835174560547 -7.31914997100830078 -0.606299400329589844
-0.723350763320922852 -6.05688381195068359 -0.653522610664367676
-0.551662862300872803 -4.61517095565795898 -0.72292172908782959
0.333453238010406494 -4.18083810806274414 -0.75565725564956665
-0.431197315454483032 -3.61513710021972656 -0.743685007095336914
-0.293939977884292603 -2.46436858177185059 -0.757450878620147705
-0.250594854354858398 -2.09957480430603027 -0.756535947322845459
0.171218052506446838 -1.96905696392059326 -0.764820337295532227
-0.213309228420257568 -1.78627538681030273 -0.741010487079620361
0.151580497622489929 -1.69303762912750244 -0.752978265285491943
-0.165400087833404541 -1.37374794483184814 -0.731651782989501953
-0.151938751339912415 -1.25571608543395996 -0.750814974308013916
0.119565449655056 -1.19215214252471924 -0.757157325744628906
-0.138979047536849976 -1.14312827587127686 -0.76342850923538208
-0.122872509062290192 -1.00077652931213379 -0.741080880165100098
-0.11255374550819397 -0.908930480480194092 -0.747186541557312012
-1.27093267440795898 -10.2897405624389648 -0.110012240707874298
0.81809699535369873 -10.9573326110839844 -0.379131317138671875
-1.09244692325592041 -8.89708518981933594 -0.53230583667755127
0.54801708459854126 -7.29008007049560547 -0.603586792945861816
-0.745440661907196045 -6.08323574066162109 -0.6567954421043396
0.410842567682266235 -5.41647863388061523 -0.712819516658782959
-0.564494967460632324 -4.60268306732177734 -0.721138417720794678
0.321233630180358887 -4.18967723846435547 -0.757150828838348389
-0.445144861936569214 -3.63708209991455078 -0.748748600482940674
0.246601670980453491 -3.1511075496673584 -0.724183499813079834
-0.357079505920410156 -2.91971778869628906 -0.747305572032928467
-0.301499158143997192 -2.4634552001953125 -0.757450878620147705
0.184690758585929871 -2.26472091674804688 -0.755256772041320801
-0.257720470428466797 -2.10436296463012695 -0.758666574954986572
0.165573015809059143 -1.97418069839477539 -0.766720831394195557
0.136573880910873413 -1.52424407005310059 -0.769412696361541748
0.12376105785369873 -1.33135926723480225 -0.755201041698455811
-0.1542176753282547 -1.24268555641174316 -0.742764294147491455
-0.141772687435150146 -1.13703751564025879 -0.759370505809783936
0.105538815259933472 -1.04067754745483398 -0.734315633773803711
-0.124952070415019989 -0.992620706558227539 -0.73486936092376709
0.102833680808544159 -0.957944095134735107 -0.752766728401184082
0.0905168280005455017 -0.748955368995666504 -0.723009109497070312
-1.31066858768463135 -10.3502702713012695 -0.110931120812892914
-1.11986243724822998 -8.89468193054199219 -0.532369375228881836
0.525576651096343994 -7.29073333740234375 -0.603499293327331543
-0.761494219303131104 -6.06021785736083984 -0.654425442218780518
0.397491872310638428 -5.46216773986816406 -0.718996763229370117
-0.579847276210784912 -4.61072015762329102 -0.722759604454040527
0.307136178016662598 -4.17398834228515625 -0.753977000713348389
-0.456301182508468628 -3.63569927215576172 -0.748748600482940674
0.252205967903137207 -3.3514559268951416 -0.772762537002563477
-0.365552961826324463 -2.91477608680725098 -0.74626690149307251
0.211254790425300598 -2.75369668006896973 -0.775357365608215332
-0.309650510549545288 -2.4672386646270752 -0.758989334106445312
0.17827075719833374 -2.27185726165771484 -0.757584214210510254
-0.259492307901382446 -2.06646394729614258 -0.744462311267852783
0.159439012408256531 -1.97375762462615967 -0.766340732574462891
-0.22483980655670166 -1.78947544097900391 -0.743019461631774902
0.14180929958820343 -1.70114433765411377 -0.756392121315002441
-0.197634175419807434 -1.56777560710906982 -0.741277515888214111
0.131975501775741577 -1.52553379535675049 -0.769885063171386719
-0.173165023326873779 -1.36752808094024658 -0.728695452213287354
-0.157062619924545288 -1.23467457294464111 -0.737933933734893799
-0.145990535616874695 -1.14225399494171143 -0.76342850923538208
-0.126577123999595642 -0.981353223323822021 -0.726173281669616699
0.100060909986495972 -0.959775388240814209 -0.754055500030517578
-0.118814386427402496 -0.913427770137786865 -0.751816630363464355
-1.34937119483947754 -10.3997459411621094 -0.111694507300853729
0.752359092235565186 -10.9840784072875977 -0.379964351654052734
-1.14267098903656006 -8.85656261444091797 -0.530147314071655273
0.502307772636413574 -7.27939271926879883 -0.602361738681793213
-0.780337393283843994 -6.05982398986816406 -0.654651165008544922
0.372727394104003906 -5.3497319221496582 -0.70321047306060791
-0.590703248977661133 -4.58347463607788086 -0.718544483184814453
0.293488353490829468 -4.16315174102783203 -0.751736640930175781
-0.466577827930450439 -3.62749600410461426 -0.747271716594696045
0.241353332996368408 -3.34446048736572266 -0.770875930786132812
-0.374740749597549438 -2.91555643081665039 -0.746786236763000488
0.20151183009147644 -2.73712420463562012 -0.770236015319824219
-0.317584127187728882 -2.46910810470581055 -0.759912371635437012
-0.266910195350646973 -2.07400202751159668 -0.747658252716064453
0.136739060282707214 -1.70337390899658203 -0.757245540618896484
-0.201059237122535706 -1.55652165412902832 -0.735904455184936523
0.126535668969154358 -1.51715028285980225 -0.765161097049713135
-0.177698224782943726 -1.36957883834838867 -0.730173587799072266
0.115281768143177032 -1.32868385314941406 -0.753132522106170654
-0.150455281138420105 -1.1490708589553833 -0.768645882606506348
0.100579649209976196 -1.05559074878692627 -0.745173394680023193
-0.130728960037231445 -0.98950493335723877 -0.733005940914154053
0.0954151004552841187 -0.944109559059143066 -0.740523338317871094
0.0941352620720863342 -0.875821530818939209 -0.764370203018188477
0.0859196186065673828 -0.749496698379516602 -0.723009109497070312
-1.38562119007110596 -10.4282655715942383 -0.112161017954349518
0.692680001258850098 -10.5914726257324219 -0.364969968795776367
-1.17428719997406006 -8.88665390014648438 -0.53230583667755127
0.478254258632659912 -7.25505638122558594 -0.600086629390716553
-0.790465831756591797 -5.99337291717529297 -0.647315502166748047
0.361572414636611938 -5.42892551422119141 -0.71405494213104248
-0.609550774097442627 -4.61783599853515625 -0.724542975425720215
-0.476552367210388184 -3.61732578277587891 -0.745372891426086426
0.233137339353561401 -3.3742673397064209 -0.777950584888458252
-0.382671922445297241 -2.90673398971557617 -0.74470895528793335
0.192906677722930908 -2.73486113548278809 -0.769382476806640625
-0.32266196608543396 -2.44925665855407715 -0.753758609294891357
0.163699418306350708 -2.26444363594055176 -0.754591822624206543
0.147750437259674072 -1.9802321195602417 -0.768621325492858887
-0.237140163779258728 -1.79804778099060059 -0.747439086437225342
-0.18155275285243988 -1.3664398193359375 -0.728695452213287354
-0.163397341966629028 -1.22448909282684326 -0.732030093669891357
0.104472063481807709 -1.1885833740234375 -0.753791749477386475
-0.154307648539543152 -1.15102624893188477 -0.77038496732711792
-0.135250493884086609 -0.999969780445098877 -0.741702020168304443
-0.121341429650783539 -0.890392839908599854 -0.731973350048065186
-1.42354238033294678 -10.4675588607788086 -0.112783029675483704
-1.18828737735748291 -8.78510284423828125 -0.526020646095275879
0.455615580081939697 -7.25052452087402344 -0.599561631679534912
-0.808716356754302979 -5.98993492126464844 -0.647202670574188232
0.344025403261184692 -5.41617012023925781 -0.712133169174194336
-0.623185515403747559 -4.61203289031982422 -0.723894476890563965
0.267361760139465332 -4.1560511589050293 -0.75005638599395752
-0.486075907945632935 -3.60422277450561523 -0.742841064929962158
-0.39068189263343811 -2.89884734153747559 -0.742891311645507812
-0.330174654722213745 -2.44825530052185059 -0.753758609294891357
0.159962937235832214 -2.31009030342102051 -0.770551323890686035
-0.240314573049545288 -1.78007102012634277 -0.739805161952972412
0.125177636742591858 -1.68975317478179932 -0.750417947769165039
-0.21133066713809967 -1.56057453155517578 -0.73859095573425293
-0.186216577887535095 -1.36932492256164551 -0.73066633939743042
0.105979084968566895 -1.3157198429107666 -0.744858443737030029
-0.168189361691474915 -1.23150491714477539 -0.736860513687133789
0.100898332893848419 -1.18972289562225342 -0.754352688789367676
0.0958137884736061096 -1.07445228099822998 -0.759047210216522217
-0.110370419919490814 -0.783375799655914307 -0.712524175643920898
-1.45992493629455566 -10.4938430786132812 -0.113221265375614166
-1.21920585632324219 -8.81008338928222656 -0.52786177396774292
0.436248540878295898 -7.29961729049682617 -0.603761792182922363
-0.837166905403137207 -6.06025934219360352 -0.655553996562957764
0.327528208494186401 -5.41917753219604492 -0.712407708168029785
-0.631373822689056396 -4.56709194183349609 -0.716761171817779541
0.250581145286560059 -4.09213781356811523 -0.737734496593475342
-0.499274790287017822 -3.61820673942565918 -0.746216833591461182
-0.395470529794692993 -2.86798095703125 -0.734841823577880859
0.174040839076042175 -2.70442557334899902 -0.759993433952331543
-0.336509108543395996 -2.43874835968017578 -0.750989377498626709
0.152874916791915894 -2.31057024002075195 -0.770551323890686035
-0.287400424480438232 -2.08164310455322266 -0.751564443111419678
0.135531976819038391 -1.98017871379852295 -0.768241226673126221
-0.246530532836914062 -1.7847675085067749 -0.742215871810913086
0.120325103402137756 -1.69463896751403809 -0.752551555633544922
0.11073601245880127 -1.49452376365661621 -0.75240635871887207
-0.19114135205745697 -1.37391769886016846 -0.733622729778289795
-0.170436844229698181 -1.22012138366699219 -0.729883253574371338
-0.140939906239509583 -0.996017873287200928 -0.739217400550842285
-0.115249156951904297 -0.799989283084869385 -0.72932809591293335
-1.24384927749633789 -8.78950309753417969 -0.526782453060150146
0.412769794464111328 -7.28202486038208008 -0.602099239826202393
-0.855337977409362793 -6.05471086502075195 -0.655215442180633545
0.312337815761566162 -5.44487857818603516 -0.715839505195617676
-0.648289203643798828 -4.58565092086791992 -0.720165729522705078
0.243132412433624268 -4.17918920516967773 -0.754163682460784912
-0.505306065082550049 -3.58084750175476074 -0.738410413265228271
0.203908860683441162 -3.40633964538574219 -0.785261034965515137
-0.411167353391647339 -2.91551899909973145 -0.748084545135498047
0.165562555193901062 -2.70207643508911133 -0.759139835834503174
-0.343589097261428833 -2.43487834930419922 -0.75006633996963501
0.146152272820472717 -2.31667518615722656 -0.772546291351318359
-0.29470449686050415 -2.08723044395446777 -0.754050195217132568
0.129580974578857422 -1.98243093490600586 -0.769001424312591553
-0.253163844347000122 -1.79216253757476807 -0.745831966400146484
0.115443773567676544 -1.69951081275939941 -0.754685163497924805
-0.194738507270812988 -1.36901795864105225 -0.731159090995788574
0.0980369970202445984 -1.31805193424224854 -0.745892703533172607
-0.175141319632530212 -1.22627401351928711 -0.734176933765411377
-0.164194747805595398 -1.14471876621246338 -0.76690673828125
0.089497692883014679 -1.07819819450378418 -0.761460006237030029
-0.146261245012283325 -1.01108992099761963 -0.751640379428863525
0.0852552950382232666 -0.960435986518859863 -0.75341111421585083
0.0801500901579856873 -0.844978094100952148 -0.734272539615631104
0.0765648931264877319 -0.749119341373443604 -0.721564829349517822
0.546220242977142334 -10.291834831237793 -0.353307664394378662
-1.25936782360076904 -8.70663166046142578 -0.521703481674194336
0.393552243709564209 -7.34095001220703125 -0.607174396514892578
-0.86253201961517334 -5.97338771820068359 -0.646186947822570801
0.296393901109695435 -5.45965766906738281 -0.71776127815246582
-0.652597367763519287 -4.51625585556030273 -0.708979368209838867
0.229594379663467407 -4.16716384887695312 -0.751736640930175781
-0.511812388896942139 -3.54832291603088379 -0.731658935546875
0.193513691425323486 -3.40791940689086914 -0.785496830940246582
-0.420524775981903076 -2.91711115837097168 -0.748863518238067627
-0.348603188991546631 -2.41686272621154785 -0.744527935981750488
-0.300301879644393921 -2.0807654857635498 -0.75191950798034668
0.122724331915378571 -1.97081983089447021 -0.764060139656066895
-0.260371029376983643 -1.80315840244293213 -0.75105518102645874
-0.224653571844100952 -1.55148482322692871 -0.735008895397186279
0.10274958610534668 -1.51187944412231445 -0.761381924152374268
-0.19956795871257782 -1.37271904945373535 -0.733622729778289795
-0.17939390242099762 -1.22906994819641113 -0.736323773860931396
0.0909294113516807556 -1.2029799222946167 -0.762766599655151367
-0.149015471339225769 -1.00831115245819092 -0.749776899814605713
0.0834173858165740967 -0.972877800464630127 -0.76372140645980835
-0.119618155062198639 -0.795737862586975098 -0.725827276706695557
0.519169330596923828 -10.3832836151123047 -0.356715500354766846
-1.28198421001434326 -8.67508411407470703 -0.519925832748413086
0.373417824506759644 -7.38888168334960938 -0.611287117004394531
-0.889132499694824219 -6.02674102783203125 -0.652619779109954834
0.274295985698699951 -5.35766458511352539 -0.703485071659088135
-0.674969971179962158 -4.57182502746582031 -0.718544483184814453
0.216288477182388306 -4.15803813934326172 -0.749869704246520996
-0.419309169054031372 -2.84702372550964355 -0.730167865753173828
0.150824859738349915 -2.73558402061462402 -0.768813431262969971
-0.359358221292495728 -2.43837165832519531 -0.751912474632263184
0.13348466157913208 -2.34388971328735352 -0.781856000423431396
-0.307232022285461426 -2.08353328704833984 -0.753339946269989014
0.116620659828186035 -1.97026383876800537 -0.763679981231689453
-0.265767514705657959 -1.80144524574279785 -0.750653386116027832
0.103909209370613098 -1.68303954601287842 -0.74657738208770752
-0.229280784726142883 -1.54990386962890625 -0.734561145305633545
-0.205837607383728027 -1.38587009906768799 -0.741506338119506836
-0.183414533734321594 -1.23018264770507812 -0.737397193908691406
0.0868593752384185791 -1.19830048084259033 -0.759401023387908936
0.0824919342994689941 -1.07395732402801514 -0.757840752601623535
-0.149628773331642151 -0.991579532623291016 -0.736732840538024902
0.0798294246196746826 -0.966273307800292969 -0.757921874523162842
0.0773086622357368469 -0.870144069194793701 -0.757529854774475098
-0.121181599795818329 -0.789723038673400879 -0.720225989818572998
0.488775640726089478 -10.4157705307006836 -0.357889294624328613
-1.30844390392303467 -8.67012310028076172 -0.519862353801727295
0.349935024976730347 -7.3730769157409668 -0.609799504280090332
-0.908359348773956299 -6.02889728546142578 -0.653184056282043457
0.259453952312469482 -5.39112949371337891 -0.708015024662017822
-0.680296361446380615 -4.51216650009155273 -0.708979368209838867
-0.522198915481567383 -3.46972489356994629 -0.715202212333679199
0.171592682600021362 -3.3896327018737793 -0.780780434608459473
-0.435966461896896362 -2.89824295043945312 -0.744449257850646973
0.142534151673316956 -2.73794841766357422 -0.769382476806640625
-0.36442112922668457 -2.4212639331817627 -0.746681749820709229
0.125715941190719604 -2.33393025398254395 -0.778198599815368652
-0.31180533766746521 -2.07056498527526855 -0.74872356653213501
0.111275807023048401 -1.98261618614196777 -0.768621325492858887
-0.271293014287948608 -1.8006213903427124 -0.750653386116027832
0.0986345186829566956 -1.68154501914978027 -0.745723962783813477
-0.209694415330886841 -1.38265144824981689 -0.740028142929077148
-0.188083335757255554 -1.23545217514038086 -0.741154193878173828
-0.173234239220619202 -1.13349533081054688 -0.759950220584869385
0.0786360874772071838 -1.06704902648925781 -0.752411901950836182
0.0769292041659355164 -0.967275679111480713 -0.75856626033782959
-0.136199861764907837 -0.878376245498657227 -0.723374605178833008
0.0732372850179672241 -0.855123043060302734 -0.743165016174316406
-1.32286918163299561 -8.58716201782226562 -0.514783382415771484
0.324271619319915771 -7.30644512176513672 -0.603849291801452637
-0.9218597412109375 -5.99367523193359375 -0.649459779262542725
0.245089218020439148 -5.43939590454101562 -0.714604020118713379
-0.699550390243530273 -4.54516696929931641 -0.714815735816955566
0.193990781903266907 -4.2279810905456543 -0.762938380241394043
-0.533883094787597656 -3.4748692512512207 -0.716679096221923828
0.160292774438858032 -3.37170100212097168 -0.776299834251403809
-0.44691428542137146 -2.91025376319885254 -0.748084545135498047
0.134133577346801758 -2.738372802734375 -0.769382476806640625
-0.373877972364425659 -2.43329977989196777 -0.750989377498626709
0.11979442834854126 -2.3578498363494873 -0.786510884761810303
-0.319012105464935303 -2.07514190673828125 -0.750854194164276123
0.105345830321311951 -1.98571884632110596 -0.769761621952056885
-0.277235597372055054 -1.80249559879302979 -0.751858770847320557
0.0935277342796325684 -1.68274259567260742 -0.746150672435760498
-0.238512396812438965 -1.54670071601867676 -0.733665645122528076
-0.213801369071006775 -1.3811417818069458 -0.73953545093536377
-0.192786186933517456 -1.24070465564727783 -0.744911134243011475
-0.176964089274406433 -1.13456833362579346 -0.761109650135040283
0.0751825124025344849 -1.06489920616149902 -0.750602245330810547
-0.156815558671951294 -0.997608840465545654 -0.742323160171508789
0.0737120658159255981 -0.96445852518081665 -0.755988717079162598
-0.136998936533927917 -0.86610490083694458 -0.712791502475738525
-0.126252934336662292 -0.790374279022216797 -0.72162628173828125
0.424733161926269531 -10.4155788421630859 -0.357775688171386719
-1.3499835729598999 -8.58799266815185547 -0.515100836753845215
-0.944872021675109863 -6.02026557922363281 -0.652845501899719238
0.226327419281005859 -5.39163017272949219 -0.707877755165100098
-0.712724566459655762 -4.53812551498413086 -0.714005112648010254
0.178826436400413513 -4.17850112915039062 -0.753416895866394043
-0.548942744731903076 -3.50121831893920898 -0.722797632217407227
-0.458089858293533325 -2.92317891120910645 -0.751979470252990723
-0.37971457839012146 -2.42180204391479492 -0.747604846954345703
-0.325231581926345825 -2.07323002815246582 -0.750499129295349121
-0.283192247152328491 -1.80435025691986084 -0.753064155578613281
0.0886137932538986206 -1.68753659725189209 -0.748284280300140381
-0.24311673641204834 -1.54507851600646973 -0.733217895030975342
0.0849630832672119141 -1.52622461318969727 -0.768467903137207031
-0.198055222630500793 -1.24927270412445068 -0.750814974308013916
-0.179669797420501709 -1.12919282913208008 -0.757631421089172363
-0.15799751877784729 -0.985518574714660645 -0.733005940914154053
0.0715923309326171875 -0.975352883338928223 -0.765010178089141846
0.0692967996001243591 -0.870818734169006348 -0.757529854774475098
-0.127980291843414307 -0.785756349563598633 -0.717425346374511719
0.395515799522399902 -10.4887285232543945 -0.360501945018768311
-1.36525428295135498 -8.51483440399169922 -0.51065671443939209
0.286617428064346313 -7.49344444274902344 -0.620124936103820801
-0.95971989631652832 -5.99477338790893555 -0.650249779224395752
0.209863588213920593 -5.39427900314331055 -0.708152294158935547
-0.727269470691680908 -4.53981494903564453 -0.714653611183166504
0.166845545172691345 -4.19964361190795898 -0.757337510585784912
-0.557670176029205322 -3.48697042465209961 -0.720054864883422852
-0.461552619934082031 -2.88743281364440918 -0.742631673812866211
0.11885930597782135 -2.77362251281738281 -0.779625117778778076
-0.39030921459197998 -2.44035458564758301 -0.754066288471221924
-0.332183837890625 -2.07591438293457031 -0.75191950798034668
0.0930689573287963867 -1.98448026180267334 -0.769001424312591553
-0.247001022100448608 -1.53902900218963623 -0.73053133487701416
-0.225056827068328857 -1.39698338508605957 -0.749390006065368652
-0.201615795493125916 -1.24699366092681885 -0.749741554260253906
-0.182081177830696106 -1.12220311164855957 -0.752993762493133545
0.0683171898126602173 -1.06056630611419678 -0.746983051300048828
0.0675623640418052673 -0.961842536926269531 -0.75341111421585083
-0.142064705491065979 -0.863768279552459717 -0.711468636989593506
0.0620104596018791199 -0.742134749889373779 -0.712899386882781982
0.361725866794586182 -10.4439544677734375 -0.358760178089141846
0.262772917747497559 -7.47039604187011719 -0.618024826049804688
-0.971374630928039551 -5.95061588287353516 -0.645509779453277588
-0.734182059764862061 -4.49471426010131836 -0.70752030611038208
0.154625728726387024 -4.21780681610107422 -0.760698020458221436
-0.567892372608184814 -3.48234915733337402 -0.719421923160552979
0.129522651433944702 -3.37983083724975586 -0.777950584888458252
-0.47430381178855896 -2.90982961654663086 -0.749123215675354004
-0.399023592472076416 -2.44665741920471191 -0.75652778148651123
0.0975155532360076904 -2.34566164016723633 -0.781856000423431396
0.0873630791902542114 -1.9930720329284668 -0.772422373294830322
-0.292183339595794678 -1.78992736339569092 -0.747439086437225342
0.0784346908330917358 -1.69166171550750732 -0.749991178512573242
-0.251431167125701904 -1.53649938106536865 -0.729635775089263916
-0.228206589818000793 -1.38941800594329834 -0.745448172092437744
-0.206822142004966736 -1.25469303131103516 -0.755108654499053955
0.0675594732165336609 -1.18461811542510986 -0.749304294586181641
